ply
format ascii 1.0
comment Author: CloudCompare (TELECOM PARISTECH/EDF R&D)
obj_info Generated by CloudCompare!
element vertex 887
property float x
property float y
property float z
property float nx
property float ny
property float nz
end_header
61.4812 45.6462 92.7899 0.562798 0.36378 0.742241 
51.587 21.6487 99.6451 0.00111833 -0.157685 0.987489 
51.052 22.5052 99.7842 0.00112041 -0.160219 0.987081 
50.9962 22.1275 99.7225 0.00112041 -0.160219 0.987081 
51.6992 22.3322 99.7588 -0.00795691 -0.169369 0.985521 
59.3835 47.6651 93.4281 0.556435 0.355275 0.751106 
58.4749 48.8995 93.5139 0.589188 0.360694 0.72302 
53.1907 21.7227 99.6613 0.0257064 -0.128532 0.991372 
53.0357 22.557 99.7843 0.0260626 -0.143911 0.989247 
53.4571 22.6141 99.7738 0.0465389 -0.125996 0.990939 
51.5537 23.6012 99.9724 -0.00337492 -0.163121 0.9866 
58.3289 46.7349 94.5995 0.533937 0.331907 0.777656 
58.1951 46.6095 94.7447 0.533937 0.331907 0.777656 
58.4494 46.4501 94.6385 0.533937 0.331907 0.777656 
58.8398 46.2691 94.449 0.5238 0.334783 0.783297 
60.1566 44.9489 94.1081 0.558989 0.327017 0.761965 
58.1287 47.4952 94.4325 0.536976 0.307526 0.785547 
58.5345 47.0458 94.3307 0.536976 0.307526 0.785547 
43.3787 56.9639 77.2776 -0.0816988 0.143269 -0.986306 
58.215 42.8499 96.2021 0.505035 0.297357 0.810258 
53.9346 22.4149 99.7241 0.0609553 -0.125361 0.990237 
66.8222 -33.185 77.5574 -0.577026 -0.553336 0.600716 
55.2219 22.3126 99.6352 0.0462773 -0.116258 0.99214 
56.02 21.3371 99.4892 0.0690504 -0.0984817 0.99274 
42.8715 19.567 97.7685 -0.271011 -0.378816 0.884902 
42.1989 20.1425 97.8099 -0.267522 -0.378118 0.886261 
44.3522 19.0848 97.9797 -0.231558 -0.350978 0.907301 
44.0395 19.3949 98.0198 -0.231558 -0.350978 0.907301 
54.2596 23.9902 99.8848 0.0557809 -0.117254 0.991534 
54.5508 24.3572 99.9016 0.10139 -0.0717704 0.992255 
42.46 20.427 98.0085 -0.260462 -0.3706 0.891524 
43.0339 20.6469 98.2616 -0.237173 -0.3727 0.897131 
56.6859 24.439 99.6079 0.141417 -0.00779464 0.989919 
225.744 -143.645 69.2897 0.697513 -0.709311 -0.101751 
43.6467 58.3998 77.4635 -0.0866027 0.143547 -0.985847 
43.1261 26.009 100.125 -0.117352 -0.278217 0.953322 
144.115 -74.7402 90.5038 0.0130881 -0.0191288 0.999731 
-6.34782 59.5976 71.7668 0.404484 0.525665 -0.748377 
27.2744 36.1512 100.424 -0.287122 -0.42531 0.858296 
45.1906 57.7131 77.2048 -0.0888085 0.138541 -0.986367 
27.8116 35.5133 100.29 -0.282426 -0.419823 0.862545 
28.3314 35.7692 100.568 -0.253141 -0.396937 0.882248 
64.2791 -56.5798 48.9609 -0.631142 -0.587383 0.506597 
28.9109 35.2157 100.487 -0.263219 -0.395581 0.879904 
28.734 36.6331 101.052 -0.240955 -0.376954 0.894341 
119.713 -138.803 24.1299 -0.652652 -0.582186 0.484875 
45.8858 18.0084 97.9479 -0.193196 -0.322933 0.926493 
45.6803 58.5897 77.285 -0.0864582 0.13857 -0.986571 
30.648 34.3448 100.598 -0.226642 -0.367014 0.902183 
32.037 33.9044 100.768 -0.225568 -0.356544 0.90664 
33.3902 33.6644 100.987 -0.181154 -0.332817 0.925428 
33.4909 33.0489 100.78 -0.209247 -0.356441 0.910585 
48.8354 17.1324 98.2669 -0.172578 -0.302356 0.937442 
33.0318 34.7609 101.305 -0.180548 -0.326106 0.927932 
33.8158 -28.1424 43.9954 -0.628189 -0.584401 0.513667 
39.8869 -20.7482 40.2402 0.551909 0.562036 -0.616045 
30.6329 36.1305 101.321 -0.200809 -0.340379 0.918596 
31.29 35.9919 101.403 -0.182228 -0.340441 0.922439 
31.679 36.8108 101.774 -0.175256 -0.332285 0.926753 
30.9631 36.8997 101.672 -0.175256 -0.332285 0.926753 
145.021 -73.3926 90.42 0.0567864 0.0417862 0.997512 
26.3492 37.9367 100.969 -0.268728 -0.38883 0.881247 
27.701 37.5277 101.152 -0.217918 -0.378796 0.899458 
28.5891 37.3202 101.294 -0.211879 -0.350249 0.912378 
28.3164 37.7453 101.394 -0.211879 -0.350249 0.912378 
27.939 38.1201 101.457 -0.210987 -0.379777 0.900696 
28.2409 38.009 101.481 -0.210987 -0.379777 0.900696 
28.7815 37.9314 101.574 -0.207342 -0.375536 0.903317 
26.2355 39.7467 101.73 -0.240319 -0.375959 0.894931 
43.5158 59.7004 77.669 -0.0873274 0.151926 -0.984527 
143.844 -72.6924 90.4852 0.089823 0.0499017 0.994707 
159.579 -137.999 73.1903 -0.546656 -0.509651 0.664397 
42.2338 60.8829 77.9766 -0.11784 0.142137 -0.982808 
35.8963 69.4272 100.958 0.530607 0.284985 0.798273 
38.843 42.4113 103.188 0.116109 -0.094998 0.988683 
29.2805 39.5724 102.318 -0.165359 -0.329328 0.929623 
41.8315 -35.4154 45.5331 -0.623951 -0.603769 0.496133 
43.3421 60.0938 77.7441 -0.0893438 0.146524 -0.985164 
41.2516 -35.9905 44.1071 -0.640508 -0.600161 0.47912 
29.8164 38.4693 102.019 -0.175547 -0.335647 0.925486 
44.313 59.0529 77.4975 -0.0921061 0.149523 -0.984459 
66.4165 -32.0525 78.1626 -0.565618 -0.555487 0.609516 
46.2427 20.1696 98.774 -0.189005 -0.312208 0.931023 
29.8142 40.0594 102.581 -0.139977 -0.31393 0.939071 
40.5117 -20.295 41.1938 0.542128 0.552262 -0.633328 
45.4809 59.1376 77.3847 -0.108705 0.130207 -0.98551 
144.56 -71.1916 90.3372 0.107742 0.0601087 0.99236 
144.693 -71.6185 90.3487 0.107742 0.0601087 0.99236 
18.6773 41.0135 99.8284 -0.306266 -0.439966 0.844175 
68.4105 -34.3909 77.9044 -0.542271 -0.555785 0.630115 
18.5281 42.4337 100.518 -0.277533 -0.433933 0.857133 
18.6597 42.487 100.588 -0.276805 -0.432795 0.857944 
64.7952 -56.2219 50.021 -0.642136 -0.57472 0.507304 
20.2309 41.4505 100.624 -0.299787 -0.445797 0.843441 
-6.28884 63.3543 74.2875 0.332736 0.535271 -0.776384 
17.8984 43.4978 100.835 -0.281655 -0.412587 0.866281 
118.013 -136.575 24.5175 -0.653928 -0.579961 0.485823 
118.04 -136.957 24.0976 -0.653928 -0.579961 0.485823 
18.6917 43.0236 100.866 -0.301083 -0.43078 0.850751 
18.6415 43.3396 101.008 -0.301083 -0.43078 0.850751 
45.341 59.9499 77.5138 -0.121217 0.153052 -0.980756 
18.7072 44.4059 101.575 -0.28825 -0.436228 0.852418 
18.7972 44.4341 101.62 -0.311912 -0.432953 0.845732 
18.8245 44.3545 101.589 -0.311912 -0.432953 0.845732 
20.4432 43.0246 101.499 -0.298271 -0.431179 0.851539 
20.8485 43.5715 101.905 -0.276436 -0.423054 0.862907 
21.1724 43.7402 102.081 -0.242408 -0.391125 0.88784 
148.207 -152.55 22.6971 0.562948 0.546042 -0.620426 
21.5604 43.9075 102.261 -0.242479 -0.39719 0.885124 
-26.2448 146.456 114.941 -0.492889 0.868424 0.0538451 
22.7831 42.0517 101.771 -0.242479 -0.39719 0.885124 
22.2406 42.1926 101.676 -0.269353 -0.42153 0.865887 
23.3535 42.0742 101.948 -0.256245 -0.394107 0.88262 
22.9109 41.9486 101.762 -0.256245 -0.394107 0.88262 
-6.36702 64.378 74.9352 0.329637 0.504806 -0.797816 
-6.6775 64.7435 75.0382 0.329637 0.504806 -0.797816 
-21.9099 71.9189 71.7517 0.459594 0.58661 -0.66683 
46.3614 56.972 76.9852 -0.101756 0.13767 -0.985237 
23.5566 42.4293 102.153 -0.226046 -0.366048 0.902725 
47.6972 56.9241 76.8422 -0.0993526 0.140051 -0.985147 
25.1903 41.1705 102.05 -0.227696 -0.377535 0.897564 
25.6615 42.4464 102.656 -0.186347 -0.351356 0.917509 
23.4862 43.0023 102.37 -0.221951 -0.386576 0.895152 
22.1895 44.3729 102.64 -0.235963 -0.399209 0.885976 
-21.3673 72.3081 72.4604 0.448302 0.578292 -0.681618 
35.5389 43.395 103.589 0.0827345 -0.120023 0.989318 
132.156 -70.8209 90.3764 -0.0870304 -0.112559 0.989826 
24.5251 44.8778 103.354 -0.194633 -0.342384 0.91918 
-20.4097 71.9481 72.8178 0.470929 0.571483 -0.672037 
18.1647 45.6367 102.033 -0.26654 -0.434079 0.860542 
18.591 45.2576 101.974 -0.26654 -0.434079 0.860542 
19.0057 45.5857 102.273 -0.291084 -0.429695 0.85477 
19.4983 45.6045 102.437 -0.268245 -0.410703 0.871417 
214.933 -145.829 56.0084 0.472398 0.249194 -0.845424 
168.669 -189.04 28.6119 -0.553169 -0.709319 0.436887 
169.184 -189.223 28.8956 -0.496765 -0.737721 0.457156 
169.6 -189.749 28.2475 -0.363868 -0.875415 0.318194 
167.916 -188.137 28.9014 -0.631386 -0.601079 0.489955 
18.9166 45.926 102.409 -0.267869 -0.4071 0.873222 
167.623 -188.058 28.6229 -0.623211 -0.613132 0.485466 
167.731 -185.436 12.4732 0.60257 0.538431 -0.589068 
168.161 -188.662 28.5417 -0.601625 -0.625218 0.497141 
21.6605 45.7486 103.089 -0.23377 -0.371974 0.898324 
169.02 -188.678 29.5422 -0.502413 -0.706049 0.499075 
-20.4033 72.6517 73.405 0.459538 0.563143 -0.6868 
168.756 -187.712 30.5417 -0.618984 -0.602118 0.504295 
169.049 -187.443 31.2253 -0.618984 -0.602118 0.504295 
165.269 -185.202 28.8704 -0.666593 -0.565848 0.485253 
165.936 -185.839 29.0443 -0.665505 -0.564925 0.487814 
18.8985 48.5293 103.605 -0.235549 -0.389618 0.890345 
164.834 -184.116 29.5069 -0.655017 -0.557354 0.510206 
169.163 -186.743 12.7484 0.613327 0.525468 -0.589673 
21.8403 45.6745 103.103 -0.20425 -0.372286 0.905365 
21.9132 46.7983 103.58 -0.186457 -0.357257 0.915205 
22.8592 45.9218 103.429 -0.155584 -0.357424 0.920892 
23.7288 46.0924 103.639 -0.142309 -0.346793 0.927083 
167.538 -185.483 31.6083 -0.647445 -0.566724 0.509547 
168.178 -186.303 31.4855 -0.628739 -0.595026 0.500631 
25.2106 46.2932 103.929 -0.0907666 -0.311764 0.945814 
21.8964 47.6923 103.914 -0.185743 -0.344547 0.92021 
169.624 -185.616 34.1895 -0.639475 -0.599193 0.481704 
167.23 -184.207 32.6411 -0.653669 -0.562928 0.505795 
168.452 -185.08 33.2608 -0.655632 -0.581852 0.481244 
24.8221 47.5268 104.292 -0.0903102 -0.302343 0.948911 
169.321 -184.996 34.5397 -0.659215 -0.571991 0.488121 
171.714 -189.43 20.6844 0.69215 -0.720575 -0.0412163 
171.505 -189.609 20.3214 0.69215 -0.720575 -0.0412163 
171.593 -189.573 21.4018 0.69149 -0.722223 -0.0153664 
173.614 -187.488 20.1845 0.729592 -0.66942 -0.139901 
172.565 -188.641 21.63 0.692944 -0.720829 -0.0153368 
172.451 -188.754 21.7527 0.694338 -0.719485 -0.0153676 
10.711 50.6906 101.954 -0.355101 -0.460199 0.813708 
171.706 -189.512 22.5477 0.696378 -0.716316 -0.0441467 
170.975 -190.2 22.805 0.671622 -0.740862 0.00692394 
11.5705 49.9216 101.87 -0.333243 -0.465908 0.819682 
38.1415 43.721 103.387 0.126684 -0.0755453 0.989062 
166.982 -184.841 12.2422 0.609843 0.521999 -0.596329 
172.678 -188.582 22.6566 0.691817 -0.720345 -0.0499249 
172.722 -188.575 23.2011 0.690734 -0.721938 -0.041132 
172.464 -188.853 23.7695 0.679996 -0.733055 -0.0153592 
167.649 -184.391 13.3128 0.602942 0.518496 -0.606319 
39.4179 42.9844 103.166 0.129267 -0.0756968 0.988716 
174.046 -187.326 23.3824 0.694216 -0.71946 -0.0210368 
173.937 -187.442 23.7379 0.694216 -0.71946 -0.0210368 
174.733 -186.678 23.8863 0.69149 -0.722223 -0.0153664 
12.4473 50.0111 102.264 -0.322351 -0.457582 0.828679 
12.3205 50.2776 102.362 -0.322351 -0.457582 0.828679 
12.6943 50.4989 102.606 -0.291463 -0.433339 0.852799 
-18.1831 72.0932 74.3388 0.425486 0.547999 -0.72018 
13.7366 50.4847 102.99 -0.319597 -0.431846 0.843425 
174.918 -186.209 21.5772 0.771877 -0.606146 -0.191818 
175.156 -186.171 22.6834 0.706405 -0.697482 -0.120461 
168.265 -184.943 13.4536 0.601707 0.517434 -0.608449 
11.6541 51.5936 102.824 -0.311034 -0.451702 0.836196 
175.111 -186.321 23.5929 0.722575 -0.687961 -0.0677865 
176.248 -185.109 23.9185 0.776149 -0.61037 -0.158244 
175.992 -185.357 23.6222 0.776149 -0.61037 -0.158244 
176.054 -184.481 22.5793 0.852533 -0.0428339 -0.520916 
176.352 -184.934 23.9762 0.878179 -0.444221 -0.177395 
171.533 -189.718 24.1709 0.674661 -0.738126 0.00137968 
171.586 -189.654 25.1982 0.645448 -0.763803 0.00137622 
171.67 -189.582 25.3582 0.645448 -0.763803 0.00137622 
173.77 -187.661 25.0247 0.693833 -0.719269 -0.0353276 
173.751 -187.753 26.8958 0.690952 -0.722037 -0.0353247 
173.202 -188.199 25.0217 0.682852 -0.730331 -0.0181535 
170.873 -190.198 26.0663 0.616207 -0.786196 0.0467468 
169.805 -190.093 27.4397 0.0524585 -0.950651 0.305795 
169.056 -184.257 14.8463 0.606638 0.525528 -0.596499 
172.572 -188.81 26.2289 0.653579 -0.756703 -0.0153292 
172.553 -188.823 27.521 0.615078 -0.788456 0.00412804 
174.431 -187.054 25.6164 0.691144 -0.722112 -0.0295601 
174.145 -187.313 25.2804 0.691144 -0.722112 -0.0295601 
174.383 -187.151 26.8708 0.689669 -0.723518 -0.0296177 
174.482 -187.108 27.7391 0.680904 -0.731655 -0.032424 
173.918 -187.632 27.6916 0.680904 -0.731655 -0.032424 
175.249 -186.234 24.6562 0.683325 -0.728785 -0.0440396 
17.0908 49.136 103.366 -0.255941 -0.396634 0.881576 
16.4856 50.6155 103.859 -0.250035 -0.399757 0.88186 
177.19 -184.337 25.9423 0.739673 -0.671526 -0.0440112 
14.3921 51.3757 103.645 -0.248008 -0.419358 0.873287 
14.5685 51.4858 103.747 -0.248008 -0.419358 0.873287 
14.1086 52.3065 103.996 -0.249307 -0.392622 0.885265 
14.044 52.2442 103.95 -0.249307 -0.392622 0.885265 
176.323 -185.274 26.1601 0.686915 -0.726248 -0.0266899 
10.1413 53.2027 103.136 -0.301232 -0.460432 0.835022 
9.82085 53.2127 103.026 -0.301232 -0.460432 0.835022 
42.4647 21.5284 98.462 -0.227594 -0.349364 0.908926 
11.4949 53.5573 103.795 -0.306967 -0.453439 0.836758 
9.97455 54.7161 103.885 -0.285705 -0.452495 0.844761 
10.3771 54.1504 103.719 -0.278214 -0.447295 0.850014 
162.312 -191.075 18.1224 -0.647167 -0.573205 0.502605 
17.001 50.6921 104.039 -0.221282 -0.37955 0.898318 
162.083 -190.777 18.165 -0.666405 -0.569046 0.481759 
161.843 -190.152 18.5722 -0.666405 -0.569046 0.481759 
14.9564 52.2403 104.196 -0.224997 -0.383819 0.895578 
15.7807 52.2376 104.408 -0.239392 -0.399978 0.884709 
17.558 51.8282 104.641 -0.203083 -0.364396 0.90883 
17.2484 52.8527 104.976 -0.172777 -0.344149 0.922881 
-15.5398 72.0266 75.7212 0.369284 0.535218 -0.759717 
115.179 -133.211 24.6813 -0.661982 -0.574835 0.480984 
162.737 -190.158 19.7144 -0.627862 -0.59083 0.506666 
12.8305 53.723 104.297 -0.237929 -0.414506 0.878393 
12.7129 54.284 104.528 -0.257403 -0.410942 0.874569 
12.849 54.2626 104.556 -0.234485 -0.41371 0.879694 
10.4166 56.6366 104.985 -0.258795 -0.419218 0.870219 
9.96932 56.7717 104.917 -0.258795 -0.419218 0.870219 
11.6529 56.2602 105.157 -0.226333 -0.397931 0.889058 
-6.96253 46.6722 84.2758 -0.59867 -0.605415 0.524468 
-6.50435 46.253 84.3159 -0.59867 -0.605415 0.524468 
36.816 44.0423 103.556 0.0948037 -0.11353 0.989001 
12.047 55.6785 104.998 -0.226002 -0.394396 0.890716 
12.9665 54.98 104.919 -0.219548 -0.396366 0.891455 
162.528 -190.003 19.6263 -0.647826 -0.553597 0.523309 
12.5234 56.0456 105.281 -0.225739 -0.396887 0.889676 
14.7251 53.6201 104.749 -0.229797 -0.404739 0.885088 
15.0977 53.7577 104.902 -0.189696 -0.357998 0.91425 
114.456 -132.527 24.5253 -0.639951 -0.592921 0.488782 
15.3691 54.5087 105.263 -0.158476 -0.354818 0.921406 
15.2569 55.3411 105.564 -0.158476 -0.354818 0.921406 
15.1932 56.0062 105.802 -0.150598 -0.335737 0.929839 
15.7758 56.681 106.128 -0.138008 -0.32384 0.935992 
15.3672 56.6981 106.074 -0.138008 -0.32384 0.935992 
17.3822 55.0164 105.767 -0.117646 -0.328598 0.937114 
16.1305 56.1122 105.981 -0.131848 -0.324862 0.936526 
17.3202 56.0019 106.086 -0.0961376 -0.30685 0.94689 
1.9977 57.1455 101.914 -0.389264 -0.519561 0.760612 
3.17252 57.7888 102.895 -0.354972 -0.466398 0.810227 
-6.78399 48.0702 86.1109 -0.595439 -0.60556 0.527967 
-6.85058 48.5937 86.6282 -0.602461 -0.592335 0.534958 
-6.63541 48.5057 86.7731 -0.602461 -0.592335 0.534958 
-6.58648 48.5881 86.9193 -0.602461 -0.592335 0.534958 
39.5785 44.0264 103.212 0.142509 -0.0544547 0.988294 
4.75684 58.587 104.089 -0.347967 -0.468722 0.811923 
39.4055 44.3724 103.253 0.178757 -0.0172991 0.983741 
2.24707 59.3231 103.466 -0.363178 -0.505221 0.78285 
3.02229 59.318 103.797 -0.329203 -0.491419 0.806308 
6.03587 57.2945 103.855 -0.325541 -0.46079 0.825648 
2.90943 59.7847 104.035 -0.317525 -0.481817 0.816719 
5.08084 59.616 104.819 -0.285752 -0.44639 0.847987 
5.74926 58.9813 104.709 -0.285752 -0.44639 0.847987 
6.48666 58.1049 104.477 -0.309417 -0.479047 0.821447 
6.43615 58.6952 104.787 -0.286389 -0.45977 0.84059 
131.851 -69.1977 90.5656 -0.0556699 -0.114748 0.991834 
8.41009 56.922 104.512 -0.283543 -0.460176 0.841333 
5.97916 60.8301 105.743 -0.262671 -0.429687 0.863929 
133.133 -69.936 90.5657 -0.0904532 -0.125695 0.987937 
36.7137 -31.3699 43.8554 -0.633848 -0.593497 0.495982 
8.60356 60.4504 106.287 -0.218973 -0.395327 0.892058 
3.16745 61.8351 105.331 -0.289696 -0.450811 0.844302 
57.0363 56.6313 76.3549 0.141047 0.324546 -0.935294 
3.53896 62.5863 105.864 -0.264685 -0.451341 0.852193 
4.13228 61.8135 105.647 -0.281782 -0.448079 0.848425 
5.44463 61.7937 106.065 -0.273614 -0.435642 0.857527 
4.89023 61.4423 105.703 -0.285752 -0.44639 0.847987 
4.99373 63.2954 106.66 -0.244873 -0.422143 0.87283 
41.2887 72.0786 79.9269 0.00603511 0.264338 -0.964411 
5.87062 61.999 106.296 -0.244164 -0.408938 0.879291 
6.94626 62.8181 106.96 -0.195554 -0.383865 0.902445 
7.86665 61.2386 106.464 -0.217153 -0.412147 0.884861 
7.90043 60.9345 106.331 -0.217153 -0.412147 0.884861 
8.21091 62.1411 106.941 -0.18599 -0.384957 0.904 
36.4814 63.2514 78.9313 -0.109817 0.143606 -0.983523 
7.76833 64.9037 107.947 -0.122179 -0.355554 0.926636 
7.99216 64.4879 107.824 -0.155338 -0.354059 0.922232 
8.81693 64.0966 107.808 -0.166063 -0.333522 0.928001 
-5.86931 65.6964 103.69 -0.424162 -0.52979 0.734444 
-5.36904 65.1929 103.615 -0.424162 -0.52979 0.734444 
122.255 -140.205 25.8346 -0.640762 -0.597035 0.482673 
-5.9981 66.814 104.407 -0.411396 -0.509738 0.755593 
-5.68005 66.6374 104.461 -0.411396 -0.509738 0.755593 
57.4455 33.355 99.004 0.336993 0.138924 0.931201 
-2.9706 65.1731 104.78 -0.38346 -0.48701 0.784717 
-2.92523 64.9673 104.675 -0.38346 -0.48701 0.784717 
42.612 22.5942 98.9064 -0.211189 -0.343361 0.915151 
42.0966 22.061 98.5759 -0.228931 -0.35725 0.905518 
49.7774 27.7129 100.616 0.0610585 -0.130181 0.989608 
40.755 45.9005 103.003 0.212802 0.0129327 0.97701 
-3.06833 66.356 105.473 -0.352667 -0.510482 0.784241 
-3.12005 66.1659 105.326 -0.352667 -0.510482 0.784241 
-4.28351 66.9168 105.307 -0.341591 -0.517999 0.784215 
-4.49313 68.5426 106.247 -0.324515 -0.47965 0.815246 
48.8202 27.7988 100.684 0.0448682 -0.146109 0.98825 
-3.75611 67.5714 105.959 -0.322496 -0.497247 0.805445 
-2.27987 67.4684 106.487 -0.316707 -0.480576 0.817767 
57.0479 33.2877 99.1475 0.314179 0.113639 0.942538 
-2.38678 68.1874 106.861 -0.274995 -0.450131 0.849565 
225.433 -127.366 81.1607 0.539416 0.610436 0.579999 
57.506 34.9324 98.7191 0.36183 0.177367 0.915216 
57.2454 35.5416 98.7046 0.365239 0.177645 0.913807 
-0.887617 66.3949 106.394 -0.320021 -0.477667 0.818182 
-0.810424 66.8586 106.672 -0.281816 -0.441974 0.851609 
0.270413 64.9793 106.017 -0.290981 -0.471483 0.832487 
-0.18354 65.2947 106.037 -0.290981 -0.471483 0.832487 
0.00870805 66.7854 106.908 -0.303347 -0.452688 0.838483 
0.518837 66.4803 106.928 -0.303347 -0.452688 0.838483 
121.336 -139.799 25.1061 -0.646437 -0.58599 0.488605 
-1.47831 67.3643 106.724 -0.287136 -0.46097 0.839679 
-1.48205 67.4837 106.788 -0.287136 -0.46097 0.839679 
0.712918 67.4835 107.524 -0.274332 -0.436786 0.856714 
-4.44776 69.5249 106.835 -0.301144 -0.466539 0.831657 
-2.26577 69.4703 107.597 -0.287382 -0.470686 0.834186 
-3.66336 70.3118 107.582 -0.313531 -0.477387 0.820853 
-4.06706 69.9482 107.215 -0.313531 -0.477387 0.820853 
57.3064 39.8328 97.6517 0.440875 0.249981 0.862055 
57.0934 39.6209 97.8219 0.440875 0.249981 0.862055 
-5.28851 71.7007 107.799 -0.310547 -0.483948 0.818141 
-4.26154 71.6025 108.111 -0.295867 -0.486849 0.821852 
-4.68602 71.0429 107.628 -0.295867 -0.486849 0.821852 
11.2585 73.2763 82.4283 0.0110524 0.291046 -0.956645 
13.7247 72.9367 82.3694 0.0209117 0.276772 -0.960708 
13.3294 73.0938 82.4059 0.0209117 0.276772 -0.960708 
131.757 -68.5697 90.6286 -0.0343472 -0.105257 0.993852 
11.3023 74.9544 82.921 -0.00609175 0.283876 -0.958842 
11.5062 76.1199 83.2422 -0.0306486 0.261126 -0.964818 
12.6951 75.5695 83.0748 -0.0109136 0.265563 -0.964032 
12.094 75.5247 83.0691 -0.00845438 0.262086 -0.965007 
11.9525 76.3368 83.291 -0.00845438 0.262086 -0.965007 
14.1113 74.0999 82.6897 -0.0208412 0.270935 -0.962372 
15.1732 74.3807 82.7434 -0.0133242 0.260428 -0.965401 
16.1449 73.8091 82.5727 -0.0254206 0.243312 -0.969615 
16.6124 74.2089 82.6627 -0.0304548 0.247293 -0.968462 
15.9681 74.5297 82.7645 -0.0255544 0.251894 -0.967417 
17.075 74.693 82.7689 -0.064936 0.216862 -0.97404 
48.9113 58.7114 76.9547 -0.112924 0.149351 -0.982315 
49.327 58.794 76.92 -0.112924 0.149351 -0.982315 
13.7859 75.964 83.1898 -0.032617 0.230735 -0.97247 
15.2978 76.1478 83.1853 -0.0251964 0.229167 -0.973061 
17.4893 75.9045 83.0113 -0.072674 0.213095 -0.974325 
16.182 76.3367 83.194 -0.0498383 0.222449 -0.97367 
16.8617 76.2279 83.1332 -0.073042 0.224078 -0.97183 
16.924 76.35 83.1567 -0.073042 0.224078 -0.97183 
12.5409 77.6506 83.6476 -0.0228533 0.239358 -0.970662 
16.2152 78.8064 83.7296 -0.066908 0.203157 -0.976857 
15.7974 78.2226 83.63 -0.0570949 0.212587 -0.975473 
14.0323 79.878 84.1071 -0.065333 0.223119 -0.972599 
14.896 79.8145 84.0354 -0.0720923 0.204058 -0.976301 
57.0095 38.2594 98.2337 0.410769 0.207593 0.887792 
16.2335 79.6068 83.8935 -0.0742771 0.196043 -0.977778 
16.7465 79.4278 83.8182 -0.0742771 0.196043 -0.977778 
17.6616 79.8601 83.7996 -0.112225 0.205535 -0.972194 
17.7772 79.7174 83.756 -0.112225 0.205535 -0.972194 
16.9186 79.5616 83.8248 -0.124961 0.193122 -0.973185 
3.61964 79.0538 83.9712 0.0369527 0.319832 -0.946753 
2.47499 80.3965 84.3696 0.0313502 0.2972 -0.9543 
3.39156 80.1419 84.3124 0.01861 0.299 -0.954072 
5.30702 79.5478 84.1818 0.0211214 0.294457 -0.955431 
5.16006 79.2296 84.0753 0.0366863 0.309936 -0.950049 
226.019 -127.821 81.0881 0.538456 0.595846 0.595846 
6.20762 79.6468 84.2287 -0.00120671 0.273924 -0.961751 
5.89105 79.0677 84.0462 0.0211214 0.294457 -0.955431 
7.75461 79.7313 84.2645 0.0109249 0.270694 -0.962603 
6.77345 80.2827 84.4088 -0.00120471 0.271059 -0.962562 
7.47283 80.7523 84.5491 0.0109505 0.271328 -0.962425 
9.17355 79.7442 84.2682 0.00843472 0.261476 -0.965173 
8.93269 80.4414 84.4617 0.00849173 0.272948 -0.961991 
9.39808 80.1782 84.3911 0.00849173 0.272948 -0.961991 
-10.0106 71.6179 77.9416 0.326564 0.511352 -0.794906 
129.737 -16.1972 73.4245 0.704675 0.599549 0.37944 
-2.25481 83.1851 85.0474 0.0345129 0.333625 -0.942074 
-3.14856 84.7182 85.5622 0.0346499 0.337516 -0.940682 
-0.876802 82.6312 84.9397 0.0658436 0.308561 -0.948923 
-0.938063 82.5842 84.9201 0.0660053 0.309319 -0.948665 
184.764 -141.286 45.6 0.335736 0.344851 -0.876561 
2.24777 72.5538 110.066 -0.10715 -0.354002 0.929086 
-1.73619 82.9077 84.9774 0.0529285 0.326608 -0.943677 
-0.458499 84.8846 85.7096 0.0314533 0.303209 -0.952405 
-0.338431 84.6793 85.6479 0.0314533 0.303209 -0.952405 
1.69386 84.8756 85.7747 0.0340221 0.306199 -0.951359 
-4.52515 85.163 85.6258 0.0721487 0.331884 -0.940557 
134.722 -150.165 12.0983 0.587381 0.560297 -0.583995 
134.691 -149.638 12.5715 0.587381 0.560297 -0.583995 
-3.55377 86.3894 86.105 0.0418355 0.302991 -0.952075 
-3.8542 86.26 86.0439 0.063688 0.321039 -0.944922 
-2.91995 86.2675 86.0924 0.0365671 0.303886 -0.952007 
-4.74872 87.9266 86.5584 0.0421428 0.320541 -0.946297 
-3.54022 87.3461 86.4152 0.0236999 0.29812 -0.954234 
138.372 -153.054 12.9415 0.590787 0.563702 -0.577244 
-3.29661 88.2143 86.6938 0.0262358 0.301087 -0.953236 
137.182 -152.414 12.3711 0.569423 0.576182 -0.58632 
137.483 -152.9 12.1873 0.569423 0.576182 -0.58632 
-1.07003 85.3812 85.8585 0.0291502 0.320652 -0.946748 
150.519 -158.306 19.7472 0.565386 0.548509 -0.616017 
-0.19621 85.7042 85.9795 0.0186703 0.304948 -0.952186 
162.908 -174.952 16.9736 0.585365 0.531383 -0.612356 
0.167327 86.6939 86.2936 0.0236436 0.297412 -0.954456 
0.748725 86.207 86.1563 0.0236436 0.297412 -0.954456 
-2.00261 87.1774 86.4135 0.0160651 0.29535 -0.955254 
164.794 -174.507 19.138 0.581165 0.517152 -0.628332 
164.644 -173.618 19.7366 0.579138 0.521731 -0.626415 
0.689829 87.7578 86.6119 0.0232918 0.270921 -0.96232 
0.135725 87.0163 86.3897 0.0232918 0.270921 -0.96232 
162.015 -171.756 18.8843 0.574844 0.527643 -0.625417 
162.618 -172.261 19.0148 0.578308 0.527727 -0.622145 
1.75743 88.2603 86.7775 -0.0109249 0.270694 -0.962603 
3.19935 72.3122 110.097 -0.136624 -0.351911 0.926009 
170.698 -182.673 17.8451 0.596329 0.521999 -0.609843 
170.85 -182.938 17.766 0.59187 0.524421 -0.612105 
171.739 -182.92 18.6374 0.588063 0.517293 -0.621763 
169.842 -180.752 18.644 0.591494 0.517346 -0.618456 
169.924 -180.549 18.8919 0.591494 0.517346 -0.618456 
4.71569 72.8603 110.36 -0.0184398 -0.279055 0.960098 
170.809 -181.106 19.2739 0.593092 0.525504 -0.60999 
2.4165 114.301 108.942 0.619093 0.347934 0.704035 
173.647 -182.139 21.0785 0.588866 0.511251 -0.625987 
173.272 -182.387 20.523 0.588866 0.511251 -0.625987 
170.686 -181.334 18.9658 0.591494 0.517346 -0.618456 
170.73 -181.598 18.7879 0.591494 0.517346 -0.618456 
154.039 -166.287 15.9184 0.596929 0.536052 -0.596929 
9.68221 113.842 100.973 0.751459 0.528804 0.394557 
6.3801 72.8981 110.413 -0.00603511 -0.264338 0.964411 
9.86405 113.085 101.502 0.73365 0.495172 0.465363 
154.997 -166.965 16.2507 0.593771 0.543021 -0.593771 
3.06243 122.633 100.926 0.79343 0.60126 0.0946293 
155.806 -166.62 17.3559 0.592194 0.531456 -0.605691 
156.003 -166.629 17.5402 0.592194 0.531456 -0.605691 
2.83253 122.945 100.371 0.745136 0.666256 0.0295801 
2.5007 123.321 100.386 0.766899 0.636425 0.0826338 
2.16236 123.759 100.156 0.766899 0.636425 0.0826338 
8.50641 72.1127 110.204 0.0354676 -0.250719 0.96741 
154.435 -164.997 17.4801 0.57894 0.541807 -0.609322 
155.119 -165.197 17.9513 0.579853 0.535899 -0.613664 
8.99243 72.2628 110.207 0.0624954 -0.216896 0.974192 
157.77 -167.901 18.1497 0.582794 0.52536 -0.619958 
156.05 -165.355 18.6942 0.581932 0.531329 -0.615667 
2.7119 122.498 102.306 0.775208 0.562779 0.286938 
154.611 -163.581 18.8882 0.572934 0.535752 -0.620255 
155.134 -164.187 18.8488 0.572934 0.535752 -0.620255 
155.699 -164.596 19.0185 0.572934 0.535752 -0.620255 
155.608 -163.483 19.8851 0.568076 0.53099 -0.62876 
155.889 -164.891 18.9421 0.581932 0.531329 -0.615667 
156.118 -163.659 20.2058 0.579337 0.525288 -0.623251 
157.823 -167.084 18.8911 0.584826 0.520782 -0.621904 
119.98 -138.092 25.3443 -0.65072 -0.583462 0.485938 
154.67 -162.248 20.0867 0.562465 0.53544 -0.630029 
154.789 -162.601 19.8924 0.565966 0.535556 -0.626787 
154.324 -161.745 20.2223 0.555184 0.555184 -0.619308 
131.367 -142.858 15.6965 0.583862 0.553399 -0.594016 
131.53 -143.061 15.6688 0.583862 0.553399 -0.594016 
131.699 -143.24 15.6672 0.583862 0.553399 -0.594016 
130.236 -141.394 15.9467 0.589471 0.552312 -0.589471 
-3.82151 130.192 101.388 0.719789 0.660713 -0.212983 
-5.66027 131.659 100.773 0.536982 0.684192 -0.493488 
132.745 -142.116 17.719 0.580357 0.549901 -0.600661 
-4.58919 131.167 101.727 0.746835 0.632413 -0.20565 
-4.51355 130.909 101.208 0.746835 0.632413 -0.20565 
-2.84717 129.465 102.715 0.789499 0.61375 0.00137304 
-2.94167 129.586 102.989 0.789499 0.61375 0.00137304 
-3.94163 130.642 102.97 0.701681 0.71029 -0.0559623 
130.805 -139.262 18.4815 0.582688 0.552287 -0.5962 
131.422 -140.548 17.896 0.582688 0.552287 -0.5962 
131.413 -139.63 18.7263 0.575945 0.555677 -0.599591 
-4.81406 131.687 102.954 0.79001 0.610008 -0.0614294 
132.003 -139.888 19.0593 0.582688 0.552287 -0.5962 
-5.6846 132.519 102.259 0.687223 0.696531 -0.206322 
133.442 -141.209 19.2232 0.582688 0.552287 -0.5962 
133.661 -141.406 19.2549 0.582688 0.552287 -0.5962 
134.067 -142.485 18.6603 0.575499 0.541745 -0.612628 
134.223 -141.936 19.3159 0.580357 0.549901 -0.600661 
119.365 -137.052 25.7618 -0.653928 -0.579961 0.485823 
-2.76195 129.013 104.153 0.765866 0.574798 0.288195 
130.441 -138.117 19.1774 0.577112 0.556803 -0.597421 
-3.18381 129.463 104.391 0.769811 0.558553 0.308885 
131.743 -138.783 19.8248 0.580357 0.549901 -0.600661 
130.907 -138.372 19.3943 0.580357 0.549901 -0.600661 
130.356 -137.51 19.6545 0.575945 0.555677 -0.599591 
-3.59171 129.172 105.688 0.735527 0.514043 0.441316 
121.605 -134.331 14.0193 0.590787 0.563702 -0.577244 
93.842 -14.2852 94.0423 0.180128 0.0608381 0.98176 
123.416 -134.457 15.7351 0.58726 0.553412 -0.590645 
-4.90234 131.753 104.236 0.766558 0.57213 0.291643 
-5.76416 132.642 104.554 0.721755 0.659668 0.209542 
-5.21785 131.434 105.632 0.745022 0.521351 0.416094 
-5.87984 132.234 105.743 0.759211 0.552006 0.344802 
124.263 -134.363 16.6653 0.583775 0.549933 -0.597312 
-6.22854 88.3527 114.663 0.0157832 -0.261029 0.965202 
117.562 -135.548 25.1355 -0.653928 -0.579961 0.485823 
123.89 -133.168 17.4267 0.580597 0.560284 -0.590753 
122.225 -132.278 16.6241 0.589538 0.555754 -0.58616 
122.536 -132.648 16.5852 0.589538 0.555754 -0.58616 
122.175 -132.637 16.2323 0.589538 0.555754 -0.58616 
123.436 -132.233 17.856 0.573681 0.556759 -0.600758 
-5.53017 130.109 107.902 0.726707 0.511509 0.458537 
-5.26385 130.39 107.188 0.728369 0.479496 0.489451 
-5.95569 131.627 106.906 0.771894 0.544017 0.328978 
-6.35377 132.688 106.063 0.765443 0.556832 0.322545 
164.914 -122.713 50.9486 0.237891 0.324396 -0.915519 
164.976 -122.583 51.0109 0.237891 0.324396 -0.915519 
164.908 -122.316 51.0877 0.237891 0.324396 -0.915519 
-6.37545 131.779 107.448 0.726571 0.514724 0.455141 
123.006 -132.088 17.5798 0.570395 0.563625 -0.597476 
-2.50122 121.509 109.96 0.67107 0.365889 0.644818 
124.536 -132.566 18.6263 0.562036 0.551909 -0.616045 
-2.9066 122.077 110.046 0.631326 0.347474 0.693317 
-2.52076 121.462 110.004 0.631326 0.347474 0.693317 
124.173 -131.151 19.5786 0.569241 0.562485 -0.599646 
124.711 -131.378 19.8784 0.569241 0.562485 -0.599646 
-26.9434 97.6759 115.177 -0.310707 -0.493662 0.812255 
-2.55461 123.446 108.975 0.675614 0.354983 0.646168 
-2.2301 123.878 108.4 0.675614 0.354983 0.646168 
-2.62769 123.97 108.765 0.675614 0.354983 0.646168 
126.46 -133.105 19.9917 0.569163 0.55903 -0.602942 
-2.50992 124.369 108.42 0.681207 0.381014 0.625127 
-3.38265 124.018 109.505 0.680107 0.337607 0.65075 
-2.74822 123.117 109.339 0.658045 0.3478 0.667842 
126.325 -132.767 20.1748 0.572515 0.555627 -0.602914 
122.573 -130.971 18.182 0.589296 0.545394 -0.59605 
122.268 -130.297 18.4901 0.583434 0.539465 -0.60711 
122.5 -130.586 18.4558 0.583434 0.539465 -0.60711 
-3.81672 123.89 110.017 0.653708 0.326043 0.682906 
120.939 -129.212 18.2061 0.577026 0.553336 -0.600716 
122.915 -129.43 19.9526 0.600716 0.553336 -0.577026 
-5.05759 121.97 112.014 0.598116 0.335529 0.727789 
149.325 -176.843 17.6449 -0.639216 -0.602306 0.478154 
150.693 -178.069 17.9884 -0.64379 -0.579915 0.499232 
152.87 -171.963 28.3053 -0.624743 -0.591064 0.510235 
-3.61357 121.654 110.916 0.638083 0.341072 0.690304 
150.039 -168.057 29.1995 -0.652652 -0.582186 0.484875 
-3.28964 120.918 110.977 0.630256 0.32566 0.704786 
-4.98833 124.424 110.875 0.623672 0.31103 0.717142 
152.155 -170.749 28.8188 -0.637312 -0.586865 0.499424 
152.687 -171.02 29.1802 -0.646641 -0.582816 0.492119 
-5.57505 124.726 111.275 0.649606 0.30143 0.697963 
-26.2605 98.4588 115.889 -0.266951 -0.470637 0.840974 
152.072 -169.397 30.3185 -0.654631 -0.594358 0.467115 
153.738 -170.502 31.2128 -0.641993 -0.615174 0.457609 
152.654 -169.113 31.4478 -0.64379 -0.579915 0.499232 
-26.533 98.0617 115.57 -0.308463 -0.50145 0.808331 
223.079 -125.89 81.9419 0.585638 0.626144 0.514754 
150.959 -168.308 30.1398 -0.657119 -0.576449 0.485696 
151.059 -168.454 30.1011 -0.657119 -0.576449 0.485696 
-1.63983 120.993 109.369 0.66071 0.374018 0.650824 
-2.16408 123.245 108.677 0.667214 0.362296 0.65082 
151.595 -168.055 31.2977 -0.652858 -0.579013 0.488385 
152.759 -169.008 31.7087 -0.64037 -0.586586 0.495825 
151.728 -168.179 31.3274 -0.654127 -0.576775 0.489334 
151.619 -168.229 31.124 -0.654127 -0.576775 0.489334 
152.084 -168.693 31.1971 -0.654127 -0.576775 0.489334 
153.506 -169.504 32.0918 -0.638903 -0.578216 0.507414 
150.255 -128.696 72.5856 -0.556653 -0.516292 0.65083 
-3.73359 125.625 108.999 0.684432 0.369298 0.628627 
152.492 -167.617 32.9997 -0.643608 -0.583113 0.49573 
152.259 -167.242 33.1415 -0.649216 -0.588824 0.48146 
-25.6729 146.781 114.966 -0.48673 0.865776 0.116298 
153.536 -167.99 33.966 -0.663048 -0.57576 0.478401 
-29.0608 99.9006 115.761 -0.322177 -0.493582 0.807824 
-28.6803 99.3256 115.56 -0.337544 -0.503916 0.795068 
137.14 -154.709 28.042 -0.656689 -0.58279 0.47866 
137.19 -154.398 28.4913 -0.6562 -0.58907 0.471591 
127.809 -14.1692 73.7136 0.690715 0.621807 0.369147 
127.974 -14.3174 73.6531 0.690715 0.621807 0.369147 
137.004 -154.016 28.7095 -0.65516 -0.588136 0.474195 
137.663 -154.329 29.2273 -0.649655 -0.582508 0.488501 
138.104 -154.575 29.5201 -0.649655 -0.582508 0.488501 
137.786 -153.99 29.8051 -0.633647 -0.610117 0.475656 
136.77 -153.268 29.2928 -0.643958 -0.576704 0.502724 
-4.42761 127.36 108.527 0.698335 0.416347 0.582222 
-5.58694 125.375 110.975 0.640733 0.344007 0.686383 
134.708 -151.202 29.0671 -0.633848 -0.593497 0.495982 
136.357 -152.54 29.6019 -0.64379 -0.579915 0.499232 
135.845 -152.178 29.3585 -0.645045 -0.577678 0.500205 
136.153 -152.563 29.3115 -0.645045 -0.577678 0.500205 
137.176 -152.844 30.3532 -0.668063 -0.601424 0.438156 
-5.90653 125.013 111.452 0.638083 0.341072 0.690304 
-4.92756 120.975 112.359 0.597351 0.331862 0.730096 
47.5927 58.9821 77.1417 -0.104759 0.145699 -0.983767 
46.2779 60.8972 77.5486 -0.0969486 0.142431 -0.985045 
146.409 -166.659 25.9195 -0.624743 -0.591064 0.510235 
146.805 -166.764 26.274 -0.657312 -0.573257 0.489201 
146.101 -165.923 26.3664 -0.610513 -0.576689 0.542866 
39.0457 -33.2016 44.64 -0.636908 -0.593215 0.492386 
116.445 -134.013 25.4536 -0.659022 -0.575177 0.484624 
138.818 -158.469 25.7883 -0.64379 -0.579915 0.499232 
222.41 -126.249 65.9725 0.322775 0.371727 -0.870422 
139.164 -158.204 26.5662 -0.652432 -0.585344 0.481357 
139.233 -157.935 26.9861 -0.653713 -0.583132 0.482303 
137.896 -156.603 26.8073 -0.640559 -0.583396 0.499333 
138.018 -156.292 27.3281 -0.640559 -0.583396 0.499333 
138.373 -156.301 27.7743 -0.640559 -0.583396 0.499333 
137.068 -155.172 27.4108 -0.643412 -0.586295 0.492219 
143.313 -161.104 28.5774 -0.634732 -0.617985 0.463907 
144.098 -162.168 28.2351 -0.618599 -0.651947 0.438522 
145.077 -162.616 28.9516 -0.618599 -0.651947 0.438522 
142.42 -160.409 28.2411 -0.634681 -0.597644 0.4899 
143.522 -161.023 28.9665 -0.653241 -0.589428 0.475237 
142.978 -160.927 28.3379 -0.653241 -0.589428 0.475237 
141.923 -159.514 28.6615 -0.642136 -0.57472 0.507304 
143.545 -160.839 29.2214 -0.649443 -0.585674 0.484985 
-25.3777 97.5541 115.642 -0.249755 -0.479591 0.841199 
142.257 -159.147 29.5438 -0.656452 -0.585938 0.47513 
115.963 -133.3 25.6492 -0.658593 -0.581506 0.477605 
143.245 -159.345 30.6217 -0.647167 -0.573205 0.502605 
144.451 -159.955 31.485 -0.64468 -0.584083 0.493188 
144.098 -159.843 31.1525 -0.650926 -0.580283 0.489456 
-25.6481 98.2391 115.948 -0.249194 -0.472398 0.845424 
-25.8789 98.5274 116.041 -0.249194 -0.472398 0.845424 
145.185 -160.801 31.4262 -0.667367 -0.580392 0.466655 
144.927 -159.861 32.2265 -0.653241 -0.589428 0.475237 
145.078 -159.157 33.3045 -0.648975 -0.591959 0.477928 
168.409 -177.59 19.933 0.584401 0.513667 -0.628189 
169.531 -177.343 21.187 0.588866 0.511251 -0.625987 
166.875 -176.053 19.7873 0.575866 0.525204 -0.626529 
167.086 -175.184 20.7085 0.572176 0.521541 -0.632938 
168.783 -176.208 21.4185 0.582396 0.518248 -0.626286 
169.046 -177.084 20.9411 0.594021 0.503151 -0.627677 
167.854 -175.586 21.0728 0.582396 0.518248 -0.626286 
168.67 -175.351 22.0169 0.577697 0.517064 -0.631593 
168.844 -175.566 21.9994 0.577697 0.517064 -0.631593 
169.153 -176.094 21.852 0.577697 0.517064 -0.631593 
223.022 -126.508 66.0949 0.343064 0.370756 -0.863045 
19.2112 -19.3428 33.4731 -0.804807 -0.548381 -0.227076 
160.792 -168.876 20.1624 0.578117 0.524182 -0.625311 
159.621 -167.491 20.2251 0.577914 0.520628 -0.62846 
160.436 -167.994 20.5666 0.58462 0.517229 -0.625055 
160.511 -167.664 20.9113 0.58462 0.517229 -0.625055 
159.744 -179.106 28.7077 -0.655846 -0.578687 0.484755 
160.98 -180.879 28.2189 -0.640168 -0.589761 0.492308 
161.02 -180.819 28.3423 -0.640168 -0.589761 0.492308 
160.54 -179.716 29.0289 -0.643608 -0.583113 0.49573 
161.258 -180.142 29.4574 -0.64037 -0.586586 0.495825 
115.012 -132.627 25.1644 -0.655403 -0.585002 0.477724 
115.331 -132.984 25.1665 -0.655403 -0.585002 0.477724 
160.156 -179.138 29.2177 -0.638381 -0.58785 0.496893 
161.109 -179.548 29.9651 -0.641633 -0.584375 0.496803 
161.153 -179.53 30.0442 -0.644475 -0.587263 0.489667 
161.335 -179.133 30.7597 -0.644475 -0.587263 0.489667 
149.833 -177.773 17.2162 -0.65623 -0.572313 0.491753 
149.66 -177.334 17.4957 -0.65623 -0.572313 0.491753 
151.294 -178.735 17.9793 -0.641633 -0.584375 0.496803 
150.915 -178.987 17.1856 -0.640168 -0.589761 0.492308 
115.048 -132.215 25.7242 -0.6562 -0.58907 0.471591 
152.928 -181.044 17.3481 -0.643202 -0.589462 0.488699 
153.177 -181.066 17.6484 -0.643202 -0.589462 0.488699 
167.094 -77.9896 85.3607 0.396758 0.343857 0.851085 
233.006 -133.558 75.6334 0.873354 -0.473126 0.11578 
-17.7793 92.7737 115.205 -0.198659 -0.422335 0.884402 
-17.4157 92.6513 115.228 -0.198659 -0.422335 0.884402 
67.5145 -32.0488 79.2021 -0.543815 -0.53708 0.644833 
159.526 -177.696 30.1089 -0.621058 -0.600861 0.503242 
159.421 -177.444 30.2791 -0.621058 -0.600861 0.503242 
45.2896 22.1088 99.2189 -0.148969 -0.310238 0.938915 
160.408 -177.213 31.8243 -0.641226 -0.590736 0.489755 
160.158 -177.784 30.8104 -0.641226 -0.590736 0.489755 
158.55 -176.654 30.1054 -0.639179 -0.57172 0.514379 
158.477 -175.855 30.9399 -0.64037 -0.586586 0.495825 
135.624 -69.2072 90.7211 0.0136138 -0.0617857 0.997997 
-16.8374 92.3075 115.173 -0.153596 -0.426336 0.891429 
158.444 -175.603 31.1948 -0.640559 -0.583396 0.499333 
158.529 -175.253 31.7213 -0.640168 -0.589761 0.492308 
158.679 -175.551 31.5594 -0.640168 -0.589761 0.492308 
159.605 -176.379 31.771 -0.643412 -0.586295 0.492219 
161.623 -177.923 32.5702 -0.641168 -0.570488 0.513271 
161.863 -177.503 33.4033 -0.64918 -0.602211 0.464658 
159.84 -176.082 32.4309 -0.636685 -0.596368 0.488853 
160.873 -176.52 33.277 -0.655934 -0.592186 0.468045 
-15.3143 91.5621 115.154 -0.210343 -0.372815 0.90375 
160.982 -176.363 33.6202 -0.655632 -0.581852 0.481244 
160.405 -175.882 33.4196 -0.652197 -0.588486 0.477831 
-8.03078 35.1499 68.602 -0.622649 -0.619292 0.478315 
47.8513 59.2424 77.1529 -0.104759 0.145699 -0.983767 
137.351 -144.165 20.265 0.573366 0.546305 -0.610576 
136.126 -143.396 19.7931 0.580131 0.542922 -0.607193 
136.447 -143.21 20.2663 0.580131 0.542922 -0.607193 
136.638 -143.887 19.8428 0.580131 0.542922 -0.607193 
137.439 -143.725 20.7413 0.572182 0.545177 -0.612691 
49.3816 59.823 77.0812 -0.0936175 0.168998 -0.98116 
130.239 -150.033 24.6094 -0.644483 -0.563712 0.516596 
131.404 -150.488 25.5688 -0.644111 -0.573477 0.506207 
130.514 -149.806 25.2047 -0.647445 -0.566724 0.509547 
131.742 -150.999 25.4152 -0.640892 -0.576971 0.506322 
130.989 -149.578 26.0748 -0.652652 -0.582186 0.484875 
131.379 -149.62 26.5473 -0.652652 -0.582186 0.484875 
-8.32033 35.5102 68.6921 -0.622649 -0.619292 0.478315 
132.026 -149.354 27.7598 -0.634681 -0.597644 0.4899 
48.5835 60.3911 77.2477 -0.090092 0.154958 -0.983805 
49.5977 60.1751 77.117 -0.0950793 0.155256 -0.983288 
-7.94477 35.9301 69.7231 -0.623944 -0.617217 0.47931 
-15.3996 92.1308 115.379 -0.173266 -0.385194 0.906424 
48.1272 27.4227 100.656 0.0263528 -0.161554 0.986512 
48.124 27.0126 100.589 0.0263528 -0.161554 0.986512 
131.005 -148.564 27.3631 -0.676971 -0.56665 0.469701 
130.029 -148.222 26.4716 -0.641936 -0.605062 0.470976 
130.279 -148.758 26.1269 -0.641936 -0.605062 0.470976 
-7.71869 36.3049 70.4995 -0.626995 -0.61691 0.47571 
129.954 -147.721 27.0077 -0.650154 -0.610041 0.452935 
130.696 -148.218 27.3725 -0.632633 -0.60914 0.478251 
47.5393 27.42 100.67 0.0193935 -0.160852 0.986788 
-10.8329 37.5375 67.9861 -0.610434 -0.630614 0.479266 
122.853 -142.996 23.2001 -0.644023 -0.593578 0.482597 
203.578 -94.0585 68.6183 0.674155 0.580476 0.456686 
115.81 -136.125 22.0875 -0.652652 -0.582186 0.484875 
124.932 -142.406 26.7081 -0.650499 -0.586626 0.482412 
116.025 -136.3 22.169 -0.652858 -0.579013 0.488385 
209.113 -161.135 81.264 0.683137 -0.713431 -0.156016 
125.495 -142.622 27.2421 -0.666202 -0.572229 0.478256 
-11.1588 38.0471 68.2314 -0.62141 -0.611306 0.490055 
42.2487 60.976 77.9884 -0.11784 0.142137 -0.982808 
128.25 -144.217 28.9482 -0.648554 -0.567695 0.507051 
-13.4561 40.8905 68.8512 -0.630329 -0.61352 0.475688 
42.963 61.6937 78.0127 -0.0917383 0.14416 -0.985293 
129.395 -144.156 30.502 -0.654903 -0.591255 0.470659 
114.171 -131.423 25.5358 -0.643776 -0.596711 0.47905 
114.394 -131.485 25.7594 -0.643776 -0.596711 0.47905 
-12.7644 40.5395 69.3258 -0.634732 -0.617985 0.463907 
129.77 -143.7 31.5906 -0.662585 -0.582068 0.471358 
149.053 -124.345 43.9947 0.416201 0.422629 -0.805085 
149.646 -124.228 44.3633 0.416201 0.422629 -0.805085 
149.668 -123.199 44.904 0.411435 0.414637 -0.811663 
151.126 -125.315 44.5114 0.387855 0.429354 -0.815613 
-11.9945 39.6237 69.1506 -0.628725 -0.618665 0.471125 
43.5995 62.0451 78.0032 -0.0910319 0.131228 -0.987164 
153.632 -126.977 44.8606 0.398955 0.437408 -0.805921 
-10.9799 38.9379 69.6026 -0.629717 -0.619641 0.468509 
-10.8294 38.4326 69.138 -0.629717 -0.619641 0.468509 
153.06 -126.307 44.9372 0.378474 0.413313 -0.828209 
46.5453 27.4037 100.673 -0.00341244 -0.178584 0.983919 
151.369 -124.156 45.2161 0.374272 0.409015 -0.832242 
150.506 -123.508 45.1469 0.385894 0.414478 -0.824193 
153.069 -123.706 46.2156 0.376957 0.402193 -0.834353 
152.86 -123.221 46.3554 0.376957 0.402193 -0.834353 
-12.3637 40.8588 70.2872 -0.622937 -0.61622 0.481894 
-11.2723 40.4691 71.2054 -0.622937 -0.61622 0.481894 
-11.0538 40.4547 71.4707 -0.622937 -0.61622 0.481894 
147.887 -122.601 44.3314 0.403613 0.445421 -0.799185 
148.026 -121.594 44.9444 0.392055 0.433661 -0.811314 
149.48 -122.403 45.2209 0.393327 0.41562 -0.820094 
149.228 -121.234 45.6991 0.386393 0.418195 -0.822079 
148.84 -121.99 45.1239 0.393303 0.421964 -0.816859 
146.153 -120.769 44.4286 0.420949 0.430626 -0.798351 
44.4314 62.6952 78.0019 -0.104583 0.140646 -0.984521 
40.578 -35.055 44.3774 -0.633647 -0.610117 0.475656 
-9.7798 37.1472 68.8799 -0.632904 -0.606043 0.481813 
-10.0963 37.3568 68.7274 -0.632904 -0.606043 0.481813 
-18.4528 93.2982 115.318 -0.176939 -0.43723 0.881772 
-9.80002 37.5745 69.4016 -0.636664 -0.609786 0.472038 
-9.58111 37.3123 69.3581 -0.636664 -0.609786 0.472038 
-9.54993 37.5415 69.6973 -0.636664 -0.609786 0.472038 
150.502 -121.959 45.9164 0.372043 0.419538 -0.827993 
150.012 -121.698 45.8276 0.372043 0.419538 -0.827993 
-9.21274 37.2019 69.7097 -0.622347 -0.622347 0.474729 
151.784 -123.002 45.9734 0.377483 0.412231 -0.8292 
153.155 -122.69 46.7382 0.371766 0.396864 -0.839219 
-8.40841 37.2298 70.7864 -0.626274 -0.612842 0.481878 
152.987 -121.987 46.9952 0.36486 0.393047 -0.844033 
153.554 -121.802 47.3263 0.355541 0.383487 -0.852366 
-8.97738 37.7507 70.7124 -0.616777 -0.616777 0.489052 
151.606 -120.628 47.0488 0.354846 0.398615 -0.845689 
168.688 -141.571 44.3975 0.383312 0.395931 -0.834452 
169.521 -141.609 44.7428 0.357511 0.391857 -0.847723 
-7.93092 37.1266 71.2732 -0.624495 -0.611029 0.486466 
-7.83396 37.2142 71.5072 -0.624495 -0.611029 0.486466 
167.396 -140.438 44.3535 0.361743 0.402458 -0.840934 
166.303 -139.358 44.3962 0.364917 0.399373 -0.841033 
167.284 -139.448 44.7738 0.350182 0.390648 -0.851332 
-8.85817 38.0587 71.2545 -0.624226 -0.614131 0.482892 
169.394 -140.432 45.2241 0.355021 0.379826 -0.854221 
169.46 -140.244 45.3347 0.355021 0.379826 -0.854221 
168.673 -139.904 45.1593 0.370641 0.383152 -0.846062 
168.509 -139.636 45.2093 0.370641 0.383152 -0.846062 
163.493 -137.108 44.2243 0.373769 0.405311 -0.834278 
85.5319 -68.966 37.9699 0.536691 0.536691 -0.651095 
85.2676 -68.9327 37.7802 0.536691 0.536691 -0.651095 
163.596 -136.912 44.3698 0.372043 0.419538 -0.827993 
163.573 -136.585 44.5199 0.359994 0.410299 -0.83789 
41.9486 61.2096 78.0586 -0.12048 0.14482 -0.982096 
46.1153 27.1958 100.626 -0.0222967 -0.198324 0.979883 
-10.0588 39.4326 71.4783 -0.614416 -0.62115 0.486483 
113.561 -130.823 25.4542 -0.650499 -0.586626 0.482412 
163.962 -135.64 45.1606 0.368817 0.422636 -0.82786 
165.571 -135.734 45.8077 0.354403 0.40124 -0.844633 
164.879 -135.771 45.493 0.362237 0.406144 -0.838947 
165.898 -137.478 45.1358 0.370074 0.404719 -0.83621 
45.397 23.3276 99.6216 -0.0825563 -0.252749 0.964003 
-10.5756 40.4729 72.1265 -0.629596 -0.609449 0.481851 
167.331 -137.891 45.5373 0.338737 0.385139 -0.858443 
-19.0625 93.9877 115.532 -0.183064 -0.393516 0.900907 
166.193 -136.822 45.5622 0.349256 0.389615 -0.852186 
146.833 -110.772 49.5358 0.334608 0.380867 -0.861962 
168.786 -137.741 46.2142 0.336146 0.398108 -0.853531 
-8.49057 38.5901 72.4321 -0.634398 -0.621007 0.460315 
-9.15853 39.0083 72.078 -0.634398 -0.621007 0.460315 
167.323 -135.769 46.515 0.349756 0.393281 -0.850295 
166.946 -136.004 46.2515 0.349756 0.393281 -0.850295 
167.953 -136.398 46.4852 0.356567 0.390822 -0.848598 
146.593 -109.391 50.0456 0.336335 0.373194 -0.864642 
169.218 -136.767 46.8152 0.316183 0.380336 -0.869122 
145.827 -109.443 49.7215 0.344604 0.381692 -0.857647 
177.911 -150.515 39.1113 0.373506 0.354908 -0.857049 
-9.27959 39.2896 72.2825 -0.61622 -0.622937 0.481894 
180.371 -150.487 40.1587 0.334107 0.352415 -0.874172 
-9.02733 39.1463 72.4384 -0.64164 -0.608134 0.467409 
178.589 -148.418 40.3426 0.311671 0.394579 -0.864389 
178.721 -148.06 40.5507 0.320375 0.335416 -0.885921 
178.386 -147.887 40.4952 0.320375 0.335416 -0.885921 
-9.6547 40.2137 72.9863 -0.620131 -0.613409 0.489047 
180.724 -149.018 40.8552 0.312789 0.355099 -0.880947 
42.1809 63.6011 78.3708 -0.101756 0.13767 -0.985237 
42.2355 63.868 78.4027 -0.101756 0.13767 -0.985237 
42.6474 63.4423 78.3003 -0.101756 0.13767 -0.985237 
85.7679 -64.4177 41.7566 0.508238 0.525012 -0.682683 
184.522 -150.911 41.6763 0.370739 0.321918 -0.871161 
182.174 -148.136 41.8028 0.357388 0.348184 -0.866627 
184.52 -149.826 42.0859 0.378356 0.320148 -0.868534 
183.73 -148.328 42.3447 0.340416 0.352628 -0.871648 
182.689 -147.719 42.1733 0.350896 0.329629 -0.87648 
183.38 -147.864 42.3939 0.340235 0.346338 -0.874237 
41.8797 64.6573 78.5608 -0.110749 0.152128 -0.982136 
178.675 -146.316 41.2211 0.292968 0.362078 -0.884912 
179.019 -146.279 41.3573 0.316852 0.359301 -0.877786 
179.347 -146.45 41.4065 0.316852 0.359301 -0.877786 
177.805 -145.132 42.0325 -0.123562 0.67438 -0.727973 
-8.4664 40.0512 74.3647 -0.626274 -0.612842 0.481878 
-8.75585 40.4601 74.5072 -0.633647 -0.610117 0.475656 
180.588 -146.361 41.881 0.323332 0.350656 -0.878918 
180.112 -146.397 41.6983 0.307611 0.368225 -0.877374 
179.992 -145.204 42.1871 0.251105 0.410488 -0.87661 
178.957 -144.664 42.3513 -0.113961 0.738525 -0.664525 
179.745 -144.213 42.7527 0.222664 0.539001 -0.812341 
-7.32788 39.7667 75.4787 -0.620587 -0.620587 0.479315 
178.234 -144.366 43.1162 -0.485786 0.834317 -0.260628 
42.8704 64.5636 78.4381 -0.110078 0.143948 -0.983444 
179.965 -144.903 42.3294 0.108786 0.549733 -0.828226 
180.281 -144.829 42.4555 0.246819 0.437612 -0.864625 
181.276 -144.985 42.7144 0.351373 0.379236 -0.855989 
-38.4303 65.5011 68.0756 -0.626373 -0.623014 0.46852 
-38.0334 65.577 68.7078 -0.626373 -0.623014 0.46852 
181.988 -146.519 42.3646 0.321424 0.367124 -0.872872 
-39.4573 66.7577 68.3803 -0.631071 -0.624376 0.460331 
-39.045 66.1171 68.0742 -0.631071 -0.624376 0.460331 
-17.8021 93.5476 115.58 -0.165544 -0.410261 0.896817 
183.322 -146.754 42.7994 0.356243 0.340953 -0.869967 
182.457 -145.983 42.7625 0.321783 0.364484 -0.873846 
-16.6894 93.1135 115.573 -0.140688 -0.413538 0.899552 
183.904 -145.699 43.4475 0.352054 0.336814 -0.873278 
-38.4838 66.3448 69.1367 -0.624726 -0.628076 0.463938 
-41.203 68.5912 68.4643 -0.623647 -0.620285 0.47572 
-41.0173 68.4118 68.4737 -0.623647 -0.620285 0.47572 
183.623 -143.228 44.353 0.359281 0.337877 -0.869918 
184.157 -144.625 43.9821 0.356385 0.359471 -0.862421 
44.2339 64.5177 78.2872 -0.0965576 0.137088 -0.985842 
47.212 21.6714 99.3676 -0.123509 -0.248319 0.960772 
47.6675 21.0933 99.2768 -0.123509 -0.248319 0.960772 
172.599 -145.718 44.089 0.341659 0.413424 -0.844008 
-40.3443 68.3818 69.3528 -0.637974 -0.624579 0.450433 
-40.6703 68.4907 69.0418 -0.637974 -0.624579 0.450433 
171.102 -144.236 44.1764 0.377483 0.412231 -0.8292 
171.749 -144.266 44.4562 0.377483 0.412231 -0.8292 
166.99 -192.873 20.1547 0.225652 -0.952603 0.204033 
